0.394163770661847	0.296407090336370	0.371129842095278	1	0	0
0.344165044359158	0.375267719364917	0.344178382223873	1	0	1
0.430602234832956	0.385665334088869	0.251789376933684	1	0	1
0.532023625678074	0.295031718323469	0.241334713285365	1	0	0
0.509230938131388	0.293428761314454	0.264935110331356	1	0	0
0.540923265571309	0.374989038115060	0.154265511747067	1	0	1
0.532920155947238	0.414218523430474	0.123342742357611	1	0	1
0.579942287848842	0.366744400336501	0.123791269589823	1	0	1
0.620532883794517	0.388082444130275	0.062140936386194	1	0	1
0.558185886643770	0.407997224006059	0.104422507331684	1	0	1
0.572716352323156	0.433987644977662	0.064048458475382	1	0	1
0.582726876509825	0.465512271252307	0.022555266133677	1	0	1
0.603977124718038	0.448295608927163	0.018522533854507	1	0	1
0.627269305243768	0.563348595284739	-0.119535062246150	1	0	0
0.538846867993918	0.541191876546004	-0.009242286160846	1	0	0
0.622275608540932	0.477803314711444	-0.029278411810008	1	0	0
0.601550681435764	0.483985467536494	-0.014739288448406	1	0	0
0.582408189717768	0.529735253842905	-0.041335336710779	1	0	0
0.474896087298036	0.496220544231065	0.099514706986375	1	0	1
0.451078022581531	0.521768938433578	0.097792818581550	1	0	1
0.563947080343694	0.474895532915827	0.031948276144047	1	0	1
0.487818829508931	0.574742610443283	0.008234793770439	1	0	1
0.487448985876806	0.583762085077618	-0.000414744147637	1	0	0
0.560682696648942	0.508964357469834	0.001149272423122	1	0	1
0.431008103557861	0.573122676023318	0.066616177957154	1	0	1
0.969640111964227	0.531016150892895	-0.416743485018359	0	1	0
0.915332341823024	0.646086702711106	-0.471175241209578	0	1	0
0.864425545030458	0.700781251995711	-0.474512801003485	0	1	0
0.853432633386211	0.872005427966433	-0.608875082574753	0	1	0
0.771942738613788	0.828041513355936	-0.504832510690017	0	1	0
0.703496236790700	0.879889409469112	-0.490435422189631	0	1	0
0.603294688190641	0.884476570184877	-0.404996435040443	0	1	0
0.446802185619365	0.924222183204869	-0.295738055847138	0	1	0
0.456189626669567	0.928555066840472	-0.308816410974670	0	1	0
0.321977104105150	0.922013916869692	-0.172330122287020	0	1	0
0.315465326502271	0.822655873075666	-0.067274024423259	0	1	0
0.257014566139159	0.740817722473113	0.072899315019927	0	1	1
0.186171151868945	0.727782774684986	0.156200148926882	0	1	1
0.166600884372810	0.645432345790027	0.255885024520660	0	1	1
0.114978822142385	0.569762956751241	0.376536281084185	0	1	0
0.170036757600634	0.506940918540293	0.383717539157684	0	1	0
0.092928657597632	0.470962410791453	0.485473994726554	0	1	0
0.231119888073224	0.341272565289319	0.478024195659702	0	1	0
0.229979179109680	0.376626685023677	0.447699072656297	0	1	0
0.203791999453934	0.217763245596802	0.604582068985497	0	1	0
0.331262123088525	0.158253839807345	0.549094463882646	0	1	0
0.325172956569404	0.220410666702304	0.501397050785356	0	1	0
0.410760358396225	0.216303522248977	0.429313427176297	0	1	0
0.535994320534289	0.128234840463753	0.395458661765186	0	1	0
0.595574377488527	0.273300830625072	0.200551787234474	0	1	1
0.604466936752015	0.224227758161207	0.239743494831197	0	1	0
0.723280944273442	0.309114462284372	0.038391483070438	0	1	1
0.758582641720143	0.350701104861998	-0.038477918707258	0	1	0
0.690264259712328	0.336165071886913	0.044352441072167	0	1	1
0.760058530615721	0.415603261171492	-0.104673373816228	0	1	0
0.733773613573740	0.449856981222420	-0.112594994100190	0	1	0
0.750701387211261	0.486603343296628	-0.165740060675880	0	1	0
0.752138163295355	0.567520723556093	-0.246301719760159	0	1	0
0.717347523217963	0.541078872804153	-0.186531084729722	0	1	0
0.607307930880618	0.614692621305859	-0.150628727069827	0	1	0
0.652496481553056	0.623186271517235	-0.203455962989484	0	1	0
0.582606437892451	0.651812443724332	-0.162893438390490	0	1	0
0.606806005477987	0.624625972325701	-0.159945706404135	0	1	0
0.486910612816474	0.638866044063431	-0.054952634844690	0	1	0
0.516036413215680	0.629229806825364	-0.074401080242036	0	1	0
0.421076550151424	0.626624505340156	0.023093218220954	0	1	1
0.505807592056795	0.591361878239480	-0.026370086333135	0	1	0
0.428269505485725	0.555656797846971	0.086760805342222	0	1	1
0.396198257245520	0.623499595996867	0.051076239643116	0	1	1
0.336247514879815	0.517541937872160	0.215307665917879	0	1	1
0.444523757253344	0.597197279430192	0.029071193709423	0	1	1
0.319875098295785	0.504591584437181	0.243846047327788	0	1	1
0.333155875301979	0.511672908369810	0.224049412889979	0	1	1
0.374789132716764	0.424238564625583	0.268435572218454	0	1	1
0.485691917273783	0.441613173170939	0.142999335275946	0	1	1
0.415453865453707	0.493571909433429	0.161065893131367	0	1	1
0.459604271748946	0.501382850463086	0.109588656571878	0	1	1
0.492150026640246	0.394385959298484	0.183219445490579	0	1	1
0.532509703504505	0.420822115834845	0.117194566293698	0	1	1
0.545526454277350	0.441345615344561	0.083825774841134	0	1	1
0.505575615640900	0.510457571768484	0.054735771034117	0	1	1
0.554677740395426	0.483136859739639	0.032975747429375	0	1	1
0.459618869709679	0.544964137027272	0.066164948548307	0	1	1
0.572848195530845	0.466318598588226	0.031624259098098	0	1	1
0.464864363391450	0.525651250219591	0.080194506197512	0	1	1
0.037128641047251	0.419449358799389	0.576319896293091	1	0	0
0.002256817169313	0.266363443834500	0.718870470905680	1	0	0
0.168929012189423	0.242861161134777	0.612331418268021	1	0	0
0.114604892758584	0.214686275076500	0.675398659975502	1	0	0
0.227239418740868	0.153079493403634	0.636905313813312	1	0	0
0.370334753677964	0.109262237584116	0.557357199219587	1	0	0
0.444913274967717	0.002862064428972	0.583491221991280	1	0	0
0.449380136557354	0.060311015640455	0.532122238157943	1	0	0
0.652639405213816	0.057858740467619	0.352553284367225	1	0	0
0.685512843744162	0.140221448887362	0.242616505979137	1	0	0
0.760786873566314	0.200183700587800	0.109605104946252	1	0	1
0.803044794466073	0.149341297786638	0.118133723800710	1	0	1
0.840066319334902	0.261949149807764	-0.031214071384212	1	0	0
0.800477377257339	0.395284539181410	-0.124640591436324	1	0	0
0.827673353447104	0.424652946579822	-0.180534617815245	1	0	0
0.817558710616645	0.551559566342359	-0.293916689104515	1	0	0
0.876706096079329	0.563243368194140	-0.360825749301671	1	0	0
0.802678519997118	0.676913530024143	-0.397504571897811	1	0	0
0.748486360501758	0.673068874293085	-0.343610606109223	1	0	0
0.709755732874927	0.803856720962582	-0.428485668353353	1	0	0
0.616264927089883	0.829961150457509	-0.366672381601808	1	0	0
0.610680686818161	0.864064804038352	-0.393052717169734	1	0	0
0.505224042152562	0.750134296884652	-0.183516001853914	1	0	0
0.494042870956356	0.840954045967609	-0.261137680072772	1	0	0
0.493547809560901	0.800087760543373	-0.220999550054878	1	0	0
0.348237517114730	0.808868384783762	-0.086202456741459	1	0	0
0.284767482732520	0.669487189876674	0.116278022655252	1	0	1
0.326596755570928	0.657476099107049	0.086614805685722	1	0	1
0.245598712522583	0.613166216424935	0.210446238261725	1	0	1
0.241478566084630	0.550093301817934	0.275610227530688	1	0	1
0.236112852398477	0.482218906043141	0.345211911974956	1	0	1
0.204192992808945	0.479349291442417	0.377647224022347	1	0	0
0.342327280723689	0.497309636728654	0.229106247970077	1	0	1
0.347796022064497	0.465430772265474	0.254731015427317	1	0	1
0.387852510838335	0.344475906141786	0.332042316138646	1	0	0
0.290496742167444	0.394776859203523	0.376043546519816	1	0	1
0.403175740537881	0.311745702171146	0.348410564095697	1	0	0
0.400933645069418	0.288434798700636	0.372246115305777	1	0	0
0.416897470004963	0.334080533512650	0.314394101445863	1	0	1
0.496417068803815	0.366214240695549	0.206664880081325	1	0	1
0.524169969166032	0.361358230877276	0.184210078416646	1	0	1
0.550134274539691	0.369467623070520	0.150619042626470	1	0	1
0.609829818109601	0.439506951547659	0.021457910109512	1	0	1
0.554584306493131	0.342134219843355	0.173199949324244	1	0	1
0.625097349544497	0.423021379445624	0.022675654107042	1	0	1
0.658237758214889	0.500792417673259	-0.088119407111446	1	0	0
0.681002610527287	0.538084856661533	-0.147748244146570	1	0	0
0.603246971458083	0.463801739884995	0.003747606679518	1	0	1
0.625247876034747	0.457736761132423	-0.012188008602290	1	0	0
0.613644758139697	0.585742582290880	-0.128236917216746	1	0	0
0.580586773294374	0.513304863510402	-0.023093256917194	1	0	0
0.562747530645318	0.617216816651123	-0.108951311842998	1	0	0
0.532781299793288	0.619678626011852	-0.081572860951893	1	0	0
0.558625893915481	0.489622926546596	0.022545595893435	1	0	1
0.551791941037154	0.606001879132763	-0.086887793882680	1	0	0
0.461509989964166	0.559361585821389	0.049904014180234	1	0	1
0.528035020957748	0.539609350256954	0.003151950361176	1	0	1
0.526979828999845	0.584789633906544	-0.040961672804737	1	0	0
0.449084722052902	0.570399157321363	0.051289933052465	1	0	1
0.517535523544281	0.567591699318816	-0.014330405539606	1	0	0
1.031343295103048	0.558263873832915	-0.495847812771139	0	1	0
0.927584264797595	0.752254621080771	-0.572082433099134	0	1	0
0.958292164319895	0.778127121026258	-0.617549229503468	0	1	0
0.823499675336815	0.875815452864635	-0.587947262894390	0	1	0
0.791171107741613	0.860573475233118	-0.548816871161242	0	1	0
0.655355157233838	0.887928403094090	-0.455102420784620	0	1	0
0.625618956625033	0.869875946117575	-0.412046154029901	0	1	0
0.548618034948919	0.869930151282865	-0.340785100809030	0	1	0
0.454948491173899	0.867621197077744	-0.249121801278335	0	1	0
0.286835613209921	0.935263995442232	-0.150726652602076	0	1	0
0.253431143756002	0.780543194175521	0.036813668524123	0	1	1
0.222924950382359	0.760964902220492	0.086797118564979	0	1	1
0.210065521405097	0.697041431023538	0.162959365107154	0	1	1
0.107039840567588	0.667629038526736	0.291818409485104	0	1	1
0.181004914152638	0.596573469002239	0.289034314028388	0	1	1
0.171316303167389	0.481234055420243	0.406158239586558	0	1	0
0.149109519816362	0.428333658490943	0.473581829954090	0	1	0
0.133013199012279	0.400513326889641	0.511792362906002	0	1	0
0.165012029559420	0.260231076774038	0.601640424834041	0	1	0
0.268531574113261	0.310448432642113	0.472227709841075	0	1	0
0.271015287659889	0.176297946745435	0.583866444127647	0	1	0
0.321478469788533	0.194899768431784	0.526448644237544	0	1	0
0.457918045270276	0.193159009247210	0.407504107616798	0	1	0
0.472849010356695	0.211477031840528	0.376921387787328	0	1	0
0.605455450712012	0.168649909838892	0.292357353811606	0	1	0
0.639089327412040	0.218427859165548	0.211665873846124	0	1	0
0.689543098933551	0.212336835108692	0.168114263152362	0	1	1
0.654602112726379	0.247669819106550	0.167727831557661	0	1	1
0.784943300632688	0.330280125967896	-0.044412486455886	0	1	0
0.668855129116068	0.344831818608571	0.057078340604773	0	1	1
0.684933828812113	0.482884125276732	-0.096869484983917	0	1	0
0.780979326153980	0.502501396573529	-0.211084567823789	0	1	0
0.744024515481748	0.585048123273236	-0.255414415963829	0	1	0
0.738667349123349	0.651261381167684	-0.313742888998519	0	1	0
0.700759005182968	0.579768613813092	-0.208197087789166	0	1	0
0.664141408170184	0.655633281590004	-0.246413953500341	0	1	0
0.648716586790640	0.605052021421200	-0.181953038631433	0	1	0
0.581789273842341	0.694319103762227	-0.203872666761509	0	1	0
0.507874360004098	0.644947030050101	-0.081933115241475	0	1	0
0.435478485946736	0.739707818134834	-0.104200486314172	0	1	0
0.492574400723357	0.711196555480628	-0.132583093911638	0	1	0
0.496775787297612	0.607131506333306	-0.033104917042816	0	1	0
0.385613404755994	0.580437879408591	0.104553612217253	0	1	1
0.455025419581643	0.630691690337051	-0.014920229494877	0	1	0
0.354043386352703	0.605483750002296	0.111039731657827	0	1	1
0.430698293688150	0.527263100245542	0.112595654732238	0	1	1
0.317840031111995	0.568422431346925	0.183488331918577	0	1	1
0.391192082609190	0.547984374413965	0.131240172977158	0	1	1
0.376826276923142	0.423511690951850	0.267173161641267	0	1	1
0.393206271175214	0.437778915209147	0.237519175697881	0	1	1
0.484500914669838	0.485539673148211	0.100585351495578	0	1	1
0.510193525906552	0.492205450238651	0.068344033735907	0	1	1
0.507692246889638	0.428716966957577	0.133982975171234	0	1	1
0.479055217661426	0.433465698720999	0.157615408641992	0	1	1
0.469538637617926	0.421957635402858	0.178340891946919	0	1	1
0.510633066759435	0.436626310816643	0.123222964896771	0	1	1
0.548944919112847	0.412678256941250	0.108956411540953	0	1	1
0.562017089814675	0.410499664023554	0.098121437670230	0	1	1
0.502140304193633	0.539431958300570	0.029219904696106	0	1	1
0.455716393751669	0.488466518245727	0.126275396818241	0	1	1
0.010259801951316	0.455971873776766	0.568403946961098	1	0	0
0.066467043344317	0.284139952371518	0.659527000342329	1	0	0
0.063407259958262	0.287155704199407	0.659560097383091	1	0	0
0.111208328381448	0.100972008552963	0.756938857294652	1	0	0
0.243267634410790	0.184444930553828	0.599666070185742	1	0	0
0.269235721007605	0.087017190955724	0.655272583996113	1	0	0
0.475847670359567	0.080521269356325	0.492036427457976	1	0	0
0.444645304504917	0.049284361640617	0.545400329547428	1	0	0
0.624790650509695	0.038058487236219	0.396725813762119	1	0	0
0.729033327868822	0.172722306600418	0.168236792334583	1	0	1
0.731183671930030	0.205583773208783	0.133627965234761	1	0	1
0.838536749075468	0.156647296789482	0.075540252886358	1	0	1
0.879357965532830	0.344815703358540	-0.152776692032704	1	0	0
0.863100271984388	0.312869726014204	-0.104979881967872	1	0	0
0.858480578171062	0.451930124274287	-0.237328037187755	1	0	0
0.843991182150287	0.442251428950842	-0.213783416272434	1	0	0
0.875399560694247	0.536612709001203	-0.334633181167687	1	0	0
0.812663816999502	0.573649205945266	-0.310307702677428	1	0	0
0.770115467837875	0.635275408002757	-0.328386230799876	1	0	0
0.726212315801720	0.764860233880453	-0.408012653563922	1	0	0
0.691658157410399	0.827566779858511	-0.433550044525720	1	0	0
0.618026860389502	0.817542137778812	-0.356736932183790	1	0	0
0.607391154932598	0.771061160454935	-0.302825519681088	1	0	0
0.554483758231390	0.760788094469855	-0.242047479557310	1	0	0
0.450170638384221	0.821062444587778	-0.199097361964617	1	0	0
0.371001046338287	0.801576570159600	-0.101605647998249	1	0	0
0.381812215919755	0.779423679923624	-0.090316330495887	1	0	0
0.341612288913761	0.658338551511844	0.070786238011212	1	0	1
0.340935074418405	0.664234613240873	0.065579541867312	1	0	1
0.227128289405606	0.619951505480925	0.221855061582449	1	0	1
0.237836173248454	0.604076229603511	0.226890696022428	1	0	1
0.208323862313874	0.448106580967648	0.402609559016428	1	0	0
0.236293798299745	0.430304353889159	0.393281674145963	1	0	0
0.274468818913465	0.460003220491481	0.330019551885029	1	0	1
0.290720893793645	0.414608889183088	0.357385065279922	1	0	0
0.381600938531245	0.318307091772367	0.362443472295823	1	0	0
0.335820610155021	0.351328098621088	0.374305408192046	1	0	0
0.389035255795108	0.280141555351105	0.390909503660637	1	0	0
0.524824335074002	0.280729379904276	0.262143403284017	1	0	1
0.444983401452835	0.344642397986965	0.277480400665381	1	0	0
0.589677708975972	0.334435242076010	0.146157934435296	1	0	1
0.575551228338911	0.293742919609255	0.200141341370257	1	0	1
0.521314904402830	0.392215141600326	0.156618812478530	1	0	1
0.550699224053413	0.470595634984425	0.049481253873079	1	0	1
0.586383840827964	0.422169297735778	0.062203005438916	1	0	1
0.671531858224711	0.412401644328319	-0.013136797880634	1	0	0
0.631723444363234	0.446260402916194	-0.007187458599600	1	0	0
0.544849519212647	0.492081567191248	0.033858767678248	1	0	1
0.526523554822477	0.589008682663827	-0.044720990508748	1	0	0
0.578720666023560	0.538328469062045	-0.046236318444154	1	0	0
0.504961333381782	0.488422154489488	0.077335542820230	1	0	1
0.504064735046750	0.575366528907309	-0.008634829852997	1	0	0
0.597821701651202	0.554156723277058	-0.081092955296473	1	0	0
0.528549019994798	0.494369510522000	0.047859506795040	1	0	1
0.540276350561193	0.518814417164385	0.011705291754979	1	0	1
0.537341752225483	0.528545711052486	0.004908843802186	1	0	1
0.536566371748192	0.496790096022778	0.037431112793290	1	0	1
0.496733635040936	0.567625347113116	0.006437300180980	1	0	1
0.521157759876670	0.520654127299649	0.028980381495339	1	0	1
0.512357692043485	0.540425915820382	0.018011744884908	1	0	1
1.045794488358510	0.570824400604676	-0.519121310400626	0	1	0
0.896941230809249	0.657452900278551	-0.464967414120994	0	1	0
0.935315919575674	0.710608064775952	-0.543941915491016	0	1	0
0.824236090592074	0.849306558150615	-0.566906978513611	0	1	0
0.804704163088975	0.829270832317524	-0.533876653080139	0	1	0
0.660871702777351	0.973473139598279	-0.534189345238636	0	1	0
0.625984296733011	0.976508307832327	-0.506996173656780	0	1	0
0.489398467852842	0.917294167761793	-0.329615520988986	0	1	0
0.371485781709699	0.971998438801711	-0.269320983769609	0	1	0
0.322055472996685	0.870415967629672	-0.121375106032501	0	1	0
0.265171461722658	0.801408820726234	0.004216031855963	0	1	1
0.187812155687470	0.843853854287815	0.039120331646630	0	1	1
0.201783433546400	0.666128052885635	0.201495835802751	0	1	1
0.177200993049951	0.678943627869968	0.213007140228814	0	1	1
0.167479862156691	0.590331325586619	0.307900121154760	0	1	1
0.125089501378489	0.504137698631634	0.427358610186543	0	1	0
0.174090015805389	0.438802799060995	0.442068569335344	0	1	0
0.195468000392235	0.425032152788805	0.435232203702392	0	1	0
0.223778005642756	0.280566489718162	0.536641451580776	0	1	0
0.322604957758304	0.313150082560323	0.421447842475956	0	1	0
0.366047460564337	0.213577654614841	0.471658963640482	0	1	0
0.372270916374912	0.251622553729207	0.432174638693833	0	1	0
0.389509815694731	0.242095515197139	0.425207377957505	0	1	0
0.543616926100990	0.219995109717562	0.302375936475648	0	1	0
0.509318037639838	0.233145683781428	0.322465152752985	0	1	0
0.559997118476472	0.250691013096156	0.257185109165715	0	1	0
0.652707139301610	0.264881516818548	0.152609010230285	0	1	1
0.701608059699010	0.366099499815069	0.003088762369431	0	1	1
0.764484245007512	0.295831778511715	0.010480111422970	0	1	1
0.676508959165557	0.467723759017483	-0.073370403287692	0	1	0
0.742544842944374	0.407928366081773	-0.079592605459800	0	1	0
0.709532717895328	0.524457182270255	-0.162470171582689	0	1	0
0.716238198596795	0.558079288920436	-0.202119063996234	0	1	0
0.645439601826315	0.624423933264719	-0.197755046523470	0	1	0
0.636163536367647	0.602899320594935	-0.167473614272560	0	1	0
0.642027596745452	0.598222608186949	-0.168644074475959	0	1	0
0.638038218959880	0.692017327772520	-0.256364598992102	0	1	0
0.608088670393015	0.695448980997523	-0.230645799219626	0	1	0
0.581718495496360	0.743760879870543	-0.251938693706067	0	1	0
0.454911460213028	0.602824709399008	0.013059785912519	0	1	1
0.439205275634723	0.678762500416946	-0.047153957312336	0	1	0
0.490897847344454	0.703900719560690	-0.123684696456028	0	1	0
0.390062299559080	0.637432335655172	0.043288160807249	0	1	1
0.336604505214550	0.607006993884740	0.126842215037907	0	1	1
0.437588995657446	0.569449684890035	0.063714458822935	0	1	1
0.341346099250159	0.606673770649026	0.122468232717339	0	1	1
0.353641517246621	0.534674907184772	0.181468856715977	0	1	1
0.450099862618093	0.561892999610612	0.058769581523224	0	1	1
0.411534298967523	0.545784894095380	0.113233748514809	0	1	1
0.417282078298621	0.474706108107854	0.177856842983538	0	1	1
0.404359477877495	0.399612208754869	0.263669777721391	0	1	1
0.481513643652715	0.452861451067950	0.135998475358048	0	1	1
0.463234751505101	0.405767697977364	0.200427129392335	0	1	1
0.442708882725935	0.422435806323130	0.204205109732072	0	1	1
0.479024128318251	0.514452291211364	0.077242889147026	0	1	1
0.557958214222920	0.455223154444184	0.057583088101670	0	1	1
0.445156742734299	0.462826430154392	0.162094794831132	0	1	1
0.547685741002860	0.524279336135815	-0.001168750077697	0	1	0
0.553952788269051	0.539330032255990	-0.022484598757277	0	1	0
0.483845747115124	0.527534166831154	0.059381459291813	0	1	1
-0.022312079361235	0.423510419040803	0.620670830455953	1	0	0
0.089080149451863	0.249879429268095	0.668237206993230	1	0	0
0.089693657070781	0.292084486069650	0.635779653600443	1	0	0
0.163570935324239	0.137961303827885	0.695606730839964	1	0	0
0.237079464094957	0.060575928579151	0.698386711190752	1	0	0
0.392662904970681	0.142075894262234	0.510750511951244	1	0	0
0.376530088458738	0.115587057310230	0.546918643342993	1	0	0
0.431191333147909	0.120651807220419	0.495971420867843	1	0	0
0.554174217054604	0.063123311185067	0.438113348371742	1	0	0
0.689364074173200	0.163674704329721	0.216040673319474	1	0	1
0.706097740461341	0.160960966291655	0.202331051065819	1	0	1
0.773889486725864	0.219546569631426	0.077283131663566	1	0	1
0.773797763553787	0.262145933128453	0.034845574592383	1	0	1
0.793772566205052	0.395004296364161	-0.117707023021414	1	0	0
0.879991808000146	0.393505129375383	-0.201315381270787	1	0	0
0.816311645860850	0.558839102096906	-0.299677329268690	1	0	0
0.874209957170908	0.501553522029723	-0.300261843469575	1	0	0
0.841542938090613	0.658190437651174	-0.415904381006466	1	0	0
0.810746063627547	0.751292703784591	-0.471721770827760	1	0	0
0.792384423102875	0.737533172868618	-0.443160546716670	1	0	0
0.621646429922121	0.775575210472677	-0.320659160527133	1	0	0
0.602611875126050	0.793039077595667	-0.319171018637360	1	0	0
0.595197202356924	0.773497234415234	-0.293511543109758	1	0	0
0.437431470725802	0.790401195252700	-0.156391704412531	1	0	0
0.504484254861588	0.850402216199481	-0.280284181382234	1	0	0
0.449397909056971	0.721569567541516	-0.100003709951283	1	0	0
0.338345803558083	0.770051857935779	-0.037592474819148	1	0	0
0.247597605537309	0.682143974922528	0.140587463523366	1	0	1
0.283779228087693	0.645858827861668	0.140689959102071	1	0	1
0.319836524681489	0.542435018891899	0.207016865922234	1	0	1
0.295781363144811	0.573303500237813	0.200346387103979	1	0	1
0.277712773987870	0.560086517025503	0.230894608319999	1	0	0
0.258916597244297	0.436769994440967	0.366374636236458	1	0	1
0.227540902490515	0.369497479539826	0.456233544013977	1	0	0
0.320229987492027	0.444808751178358	0.301015712088911	1	0	1
0.352511186326914	0.318355712856306	0.389353339864824	1	0	0
0.392334449497969	0.271136300229013	0.396155136414972	1	0	0
0.480600373694201	0.359074581498865	0.229069221813457	1	0	1
0.427853607541675	0.336757940122027	0.301423062147652	1	0	0
0.453014916455071	0.288669636614797	0.323202601012399	1	0	0
0.539478471359624	0.383057568505550	0.147717729228731	1	0	1
0.522672217125179	0.403964201620716	0.143661102873230	1	0	1
0.599098988154981	0.328942481849564	0.142270484942394	1	0	1
0.544892306041904	0.467703186758848	0.058167981918202	1	0	1
0.677824287033340	0.395276294863012	-0.002304253062347	1	0	0
0.593648440260990	0.398068739213096	0.078996752694414	1	0	1
0.643890045068800	0.468078734373803	-0.041160821243304	1	0	0
0.672039938804365	0.461184437953064	-0.062387508124983	1	0	0
0.541088466741343	0.450836049271734	0.078790062411880	1	0	1
0.626296134638608	0.532167841490239	-0.087555395820633	1	0	0
0.573209427542736	0.508322040527322	-0.010734935084240	1	0	0
0.558237648189702	0.507565634533421	0.004993023325294	1	0	1
0.544383309349838	0.555893303814174	-0.029476016397665	1	0	0
0.557439117236942	0.538908291477314	-0.025548301806311	1	0	0
0.496256161888159	0.517592532691607	0.056916856699187	1	0	1
0.534892027353082	0.591421056275527	-0.055488243100279	1	0	0
0.463123347843627	0.477256682182483	0.130046915387185	1	0	1
0.524901512454049	0.549735037887418	-0.003840214107745	1	0	0
0.449983886173646	0.491796049948644	0.128658770539927	1	0	1
0.440371585493556	0.527461467684812	0.102781443605232	1	0	1
1.028000817909360	0.587393208194225	-0.518074030261650	0	1	0
0.943536559702429	0.694650159634282	-0.537433182703913	0	1	0
0.914340457538630	0.718519250390294	-0.532933276118850	0	1	0
0.846039167074636	0.874516290142428	-0.604994635813519	0	1	0
0.782476179824759	0.841617961541719	-0.525495849365024	0	1	0
0.623351600158230	0.963455016919395	-0.493413845805199	0	1	0
0.539371411728239	0.994836106579523	-0.447002124774180	0	1	0
0.521803543916469	0.971745141223336	-0.410272053362153	0	1	0
0.473606737622704	0.855508493693608	-0.255455595569294	0	1	0
0.394474701880272	0.829182084715121	-0.152265857168720	0	1	0
0.304930186539362	0.799713082433222	-0.033840479950958	0	1	0
0.254582063432703	0.769015018368727	0.047181722111764	0	1	1
0.186540964853838	0.787462148091233	0.096642143222038	0	1	1
0.132182132354822	0.622190378181086	0.311169916075394	0	1	1
0.078494451773654	0.576220349083723	0.404179416423867	0	1	0
0.165650234470684	0.458362676863788	0.432066924712330	0	1	0
0.216098448158259	0.476083448508770	0.369633384037105	0	1	0
0.119968900727521	0.350562155666069	0.564861390635758	0	1	0
0.195092574488788	0.260392342499741	0.577212845566647	0	1	0
0.275653773299930	0.330593543787744	0.448019651006876	0	1	0
0.319147714803587	0.282886422401898	0.451782346201616	0	1	0
0.443317297734756	0.231709115230792	0.385518702506533	0	1	0
0.494453515029418	0.230129317478494	0.339338417644038	0	1	0
0.510604603594375	0.175984920392488	0.374823884766550	0	1	0
0.625922696982247	0.158148264806022	0.282812798620975	0	1	0
0.551628524550958	0.293385095111932	0.223869272012810	0	1	1
0.621517630292957	0.280339624914364	0.168136619167882	0	1	1
0.723800177974746	0.239786359740696	0.107004529949696	0	1	1
0.783767542717526	0.353552627165901	-0.066474787934489	0	1	0
0.739916945310180	0.462894833826819	-0.131632323717783	0	1	0
0.762179166156609	0.414043087353304	-0.105230740259714	0	1	0
0.800094022547945	0.569897121345232	-0.294750890342272	0	1	0
0.775893709191399	0.475677878466123	-0.179792255058363	0	1	0
0.715994544674220	0.612439637316570	-0.254797083729967	0	1	0
0.660731681675515	0.626173170044144	-0.214430299679280	0	1	0
0.610374314454115	0.683191338806727	-0.220931361441525	0	1	0
0.678275894403176	0.646383318369681	-0.251144902289159	0	1	0
0.598715877817289	0.719133187755022	-0.244547250862356	0	1	0
0.495707725607812	0.735076690207283	-0.159306447758713	0	1	0
0.474125365992168	0.644272114834970	-0.047583179731988	0	1	0
0.435820100469501	0.648004149168779	-0.013027554315292	0	1	0
0.430848717119111	0.694785775267295	-0.054810684612256	0	1	0
0.374000409729650	0.664449885212378	0.032340391723574	0	1	1
0.413787666712713	0.636766436003759	0.020240841739503	0	1	1
0.346787023796307	0.634128595526678	0.089759738839398	0	1	1
0.380119717779967	0.535233046627172	0.154818328843539	0	1	1
0.332548217100017	0.563719440709789	0.173643986112475	0	1	1
0.442058215931735	0.475895453221701	0.152248262566359	0	1	1
0.350396936218210	0.450424382175026	0.266707350430403	0	1	1
0.475855078865511	0.429255177571164	0.164929044675628	0	1	1
0.397445545764976	0.446413634958878	0.224994260918259	0	1	1
0.474650970209805	0.407743112131424	0.187289651869290	0	1	1
0.441988225071121	0.450597076701730	0.177269216130175	0	1	1
0.504960509576150	0.486876786146557	0.078877011254695	0	1	1
0.430957913116237	0.430005404737788	0.208296574521991	0	1	1
0.435745840630717	0.508444185774846	0.126268339356123	0	1	1
0.481555011932006	0.431165070622154	0.157418728808374	0	1	1
0.490873103702967	0.448483573383792	0.131061509578203	0	1	1
0.571940515621066	0.500270251963059	-0.001414440317596	0	1	0
0.480346107163943	0.526586759367581	0.063820057485879	0	1	1
0.007675032256120	0.386556787479786	0.626117972990568	1	0	0
0.069038491319940	0.264720576187319	0.672097064574202	1	0	0
0.095923736402583	0.202339593390512	0.697951469030132	1	0	0
0.209888070043908	0.187517179536950	0.623640411252206	1	0	0
0.185340411581460	0.168388486994316	0.657177115521029	1	0	0
0.283370782643515	0.067951444743696	0.658989205727958	1	0	0
0.435293319324927	0.121221261317399	0.491909630947126	1	0	0
0.563112095824297	0.122238350695283	0.375972340541823	1	0	0
0.524991040668942	0.051830227569899	0.474129485517245	1	0	0
0.650146048688529	0.048742410582001	0.363393529818241	1	0	0
0.740048998926672	0.146393499528053	0.183311349621350	1	0	1
0.719228779585137	0.176991702891881	0.173690444587581	1	0	1
0.774920351357965	0.245080600924441	0.050773533879457	1	0	1
0.910162656032212	0.362983493290217	-0.200971762706188	1	0	0
0.800361305864498	0.469062156559276	-0.197323645510036	1	0	0
0.937965364998114	0.549224256339885	-0.404464565198616	1	0	0
0.811117530985840	0.619195943287389	-0.351822292085555	1	0	0
0.864323850860552	0.568793513216609	-0.354445533856876	1	0	0
0.783949747424501	0.663073077242790	-0.367413518927131	1	0	0
0.765898033926789	0.688000412576248	-0.373799508951209	1	0	0
0.633198844199698	0.763063122170759	-0.319750014906783	1	0	0
0.656031914609005	0.760846203837711	-0.339214526726357	1	0	0
0.492082051947231	0.845063695705517	-0.263211345244674	1	0	0
0.479717132397630	0.863309299628501	-0.268880082148276	1	0	0
0.449817357907268	0.824273784756865	-0.201897385508718	1	0	0
0.330470799077089	0.726510718132283	0.013814370166035	1	0	1
0.410011350451412	0.734045393933346	-0.073194902645948	1	0	0
0.363773056589015	0.637321141178836	0.069645702751996	1	0	1
0.312464294580373	0.659205268291271	0.098964505160072	1	0	1
0.233943777406927	0.602634274356226	0.232082675702776	1	0	1
0.208972582958720	0.581866179688370	0.276314865108765	1	0	1
0.258673452683734	0.430915152716961	0.372041766778165	1	0	0
0.213204106520182	0.461527981543890	0.385790259397393	1	0	0
0.355858396362181	0.396613045217647	0.312976041738254	1	0	0
0.296225458019875	0.439435697888204	0.328896823649089	1	0	1
0.395085306989653	0.397882926447025	0.274267675706371	1	0	1
0.365590609067973	0.346935754440698	0.350654571034488	1	0	0
0.469736026830587	0.289881977110952	0.306180580814678	1	0	0
0.503113776885626	0.311713768158328	0.253182744658707	1	0	1
0.498784509683141	0.273734610339034	0.293873921687935	1	0	1
0.584037242936892	0.307010254992109	0.178782454645110	1	0	1
0.542584858793754	0.309812664393495	0.216666740521648	1	0	1
0.591401884663091	0.399578636182301	0.079731087670736	1	0	1
0.559969930082039	0.454018566130747	0.056777281139801	1	0	1
0.547148381449510	0.383284766686347	0.139902730751215	1	0	1
0.649219958665766	0.385473274810781	0.036095250833514	1	0	1
0.580311541697656	0.461259434300106	0.029221190643198	1	0	1
0.665689057216898	0.444218349052938	-0.039101109020776	1	0	0
0.555950262686748	0.520082901907148	-0.005236813862782	1	0	0
0.605390468771378	0.476716734868357	-0.011310635668447	1	0	0
0.525157926750336	0.547908494001702	-0.002270092007386	1	0	0
0.603075784944807	0.487720138006691	-0.019998262930699	1	0	0
0.549757888134540	0.597405039347702	-0.076292395803553	1	0	0
0.495670178208664	0.509982302732294	0.065097780248829	1	0	1
0.463134009771258	0.529454387342764	0.078128227849771	1	0	1
0.569515754481411	0.489177256087411	0.012103020725241	1	0	1
0.476774128297716	0.562984266093572	0.031032949228144	1	0	1
0.515348736730265	0.575524584057334	-0.020075645228397	1	0	0
0.537542059714667	0.563032607879989	-0.029773940006347	1	0	0
0.461576436211303	0.509534008441305	0.099520863149874	1	0	1
0.912610429397492	0.585591470952608	-0.414511157308392	0	1	0
1.011317916394357	0.626906530058904	-0.537464997837808	0	1	0
0.891396380806432	0.696101952050270	-0.494015378416485	0	1	0
0.766673905303611	0.800977083706156	-0.476662878051673	0	1	0
0.687295564051609	0.824838603679270	-0.427149497339801	0	1	0
0.697903818669823	0.928035460128422	-0.527064789789355	0	1	0
0.528458730671672	0.897391543845192	-0.347640948622036	0	1	0
0.440708125937558	0.880377062539452	-0.247683830600761	0	1	0
0.485288001371574	0.851141918283710	-0.262520691256369	0	1	0
0.402067981227289	0.888445531824297	-0.217953617146419	0	1	0
0.280001976952267	0.852880144480856	-0.062045915866014	0	1	0
0.281353196131291	0.809793597469252	-0.020349062172594	0	1	0
0.225225322851367	0.704751734944440	0.140354320990799	0	1	1
0.192007453341252	0.664377083277245	0.212772724313300	0	1	1
0.192490933409253	0.579036627525075	0.294821553060280	0	1	1
0.076327604611981	0.491153845442937	0.482331977239086	0	1	0
0.196630846546423	0.472750633881689	0.390721111907973	0	1	0
0.113406744257465	0.386656462367844	0.540249118247655	0	1	0
0.238040757372371	0.258335656144987	0.543347894898353	0	1	0
0.296890337780199	0.288329507907521	0.466718280346960	0	1	0
0.369486094867662	0.207389281365821	0.474081845161916	0	1	0
0.441003575664883	0.197684366139009	0.418786324198409	0	1	0
0.500468959372629	0.246878899431532	0.317838091683055	0	1	0
0.482339082277089	0.173683919159467	0.402982486365148	0	1	0
0.528246427594407	0.155790525738643	0.377189139221427	0	1	0
0.651806175437684	0.302953311706614	0.115776617631761	0	1	1
0.588483517610597	0.206691444953540	0.272144901088966	0	1	1
0.675024712175596	0.253965667957541	0.141331163389038	0	1	1
0.685200911145262	0.332642177275427	0.052928494629033	0	1	1
0.679454707109924	0.457359068528699	-0.065969505278920	0	1	0
0.740560870611593	0.431662582735564	-0.101253311363837	0	1	0
0.778911319635117	0.510107050439805	-0.216494175640949	0	1	0
0.789743674660263	0.522836882290973	-0.239435337653969	0	1	0
0.698807391829257	0.591224530869052	-0.217483579388132	0	1	0
0.650524850337680	0.616110345046604	-0.194589436763777	0	1	0
0.652384878788426	0.597298029549572	-0.177934032954376	0	1	0
0.637575012575979	0.725557364043786	-0.288189948267735	0	1	0
0.628705070120913	0.618408828925444	-0.175405434455591	0	1	0
0.472951718172013	0.641585966233224	-0.043727410508335	0	1	0
0.443602580474973	0.726496682446130	-0.099139810990677	0	1	0
0.505632236027152	0.606789667909661	-0.041613557488947	0	1	0
0.400745962995183	0.589663992073427	0.080299823990663	0	1	1
0.478849897435597	0.556876905319733	0.035062335980149	0	1	1
0.386603953587428	0.621333750888887	0.062817235930605	0	1	1
0.454302691170864	0.516408649597870	0.099917977736219	0	1	1
0.339718143837650	0.549636387727862	0.180447887996156	0	1	1
0.425132033686792	0.467307638684912	0.177412537230519	0	1	1
0.403326190875542	0.497781813730602	0.168875155951575	0	1	1
0.360136233607368	0.481782033727252	0.226884984480237	0	1	1
0.446182830943513	0.462096430779364	0.161802614614196	0	1	1
0.441909987101087	0.405518799095855	0.221514753752740	0	1	1
0.490998519195967	0.498081846355879	0.081625048569476	0	1	1
0.415377352886508	0.375650086569507	0.276133529105760	0	1	0
0.487525527608170	0.503209743410550	0.079975554322054	0	1	1
0.426522461298906	0.484379127056245	0.159214288647642	0	1	1
0.560423657386308	0.480079124945192	0.030288911284245	0	1	1
0.451916929662184	0.426348280165116	0.191343854937325	0	1	1
0.565138492630269	0.411415412820725	0.094102978833536	0	1	1
0.462879235082235	0.551796682549251	0.056090955260900	0	1	1
0.562943314793336	0.500066099055891	0.007786834251349	0	1	1
-0.000669290581089	0.352037174311919	0.658954864512894	1	0	0
0.003547975955203	0.294238306468234	0.698293024716444	1	0	0
0.171318492542731	0.186457262010408	0.654121480753358	1	0	0
0.121168400755225	0.101867067749934	0.749800727217774	1	0	0
0.308170578271648	0.142920916209416	0.580794904608876	1	0	0
0.391858355171341	0.144036047823769	0.509756665098444	1	0	0
0.356478390285669	0.105275787836096	0.572082096482116	1	0	0
0.533553243017213	0.133349253221121	0.393001836528195	1	0	0
0.536354283736251	0.055058309219966	0.461232462931747	1	0	0
0.704637396698924	0.170914118976553	0.194006700531755	1	0	1
0.672777321478971	0.122015915686946	0.272512198914894	1	0	0
0.769931480992134	0.266155851642564	0.034702025509847	1	0	1
0.841010601712433	0.273480590504603	-0.043680962742701	1	0	0
0.845820273099079	0.387136749395715	-0.161450930803676	1	0	0
0.926590497959452	0.408884176067839	-0.261598829932341	1	0	0
0.865154319027419	0.532191105326226	-0.320776405573619	1	0	0
0.895885028515856	0.549997331253603	-0.366352582069000	1	0	0
0.757739404236238	0.612182018861849	-0.294684266238017	1	0	0
0.849570902347942	0.732691481413380	-0.489456214964705	1	0	0
0.727970250807591	0.796863549499729	-0.438597510335471	1	0	0
0.652981812826241	0.716540457064449	-0.294302814093544	1	0	0
0.644240929157632	0.786323305167195	-0.352057009183539	1	0	0
0.517970588059143	0.839093401724706	-0.282373752622777	1	0	0
0.456802796255340	0.787891398740664	-0.173022733637485	1	0	0
0.403878765083364	0.750050729393358	-0.083037443500143	1	0	0
0.378157084873494	0.719786410112872	-0.027143833878610	1	0	0
0.290328169790158	0.664209429630785	0.115997010369627	1	0	1
0.301603256442582	0.624576475089974	0.144113037847432	1	0	1
0.324186824552354	0.619004131867355	0.127259349726246	1	0	1
0.242588428625405	0.606213872213987	0.220175152779604	1	0	1
0.247340375060478	0.564632075698493	0.255943779936690	1	0	1
0.247857027073267	0.460742439946807	0.354329415635255	1	0	1
0.236273969900013	0.516113211009500	0.313056068127398	1	0	1
0.290535423240624	0.464109905940493	0.310910630127577	1	0	0
0.386365247061959	0.405253946699846	0.275564734318218	1	0	1
0.367535816437598	0.296721918017717	0.395432417346825	1	0	0
0.458034893275067	0.405335160542507	0.205942027604675	1	0	1
0.453142313532575	0.276872550054131	0.334223718323555	1	0	0
0.461494359658521	0.363956730648789	0.242891237129539	1	0	0
0.474222172850145	0.316610432424722	0.276320782751792	1	0	0
0.563478793025658	0.280519676620901	0.224858541169006	1	0	0
0.564881818281972	0.378961191265252	0.126612571124366	1	0	1
0.528653066274770	0.429829488387977	0.112077792853993	1	0	1
0.580096243733866	0.421622162603230	0.069022996364467	1	0	1
0.545587788141560	0.422103529814733	0.102922427159533	1	0	1
0.599975581587871	0.410379786573752	0.060404165781167	1	0	1
0.568671355296009	0.410097723879518	0.091897405933708	1	0	1
0.625876377527403	0.476150455421950	-0.031225429651552	1	0	0
0.533945283015803	0.460668818425871	0.076108556537847	1	0	1
0.593186449049178	0.491947932075221	-0.014337563065490	1	0	0
0.519047264395550	0.498826787296415	0.052897574733457	1	0	1
0.593121519966868	0.581708413714644	-0.103846049274000	1	0	0
0.514626927476473	0.554370996983239	0.001798401365771	1	0	1
0.537081740372555	0.608373234417591	-0.074589310511726	1	0	0
0.577623170610701	0.613544453922737	-0.120080826629864	1	0	0
0.559182672238114	0.493960696924216	0.017652040790736	1	0	1
0.447542086613329	0.517443716169351	0.105613194416215	1	0	1
0.534696073470607	0.552159973466106	-0.016059029811306	1	0	0
0.442091453049618	0.533023255203617	0.095535691597071	1	0	1
0.433996769993141	0.563021515835056	0.073711127749882	1	0	1
0.914605634295599	0.653261301151817	-0.476852702463704	0	1	0
1.012705454403758	0.642018370601390	-0.551304907210973	0	1	0
0.903219161379513	0.761752575878841	-0.559825681430919	0	1	0
0.845961982864822	0.890587762211375	-0.617651835030335	0	1	0
0.708951326442337	0.934975073814030	-0.542264612847961	0	1	0
0.723258068110255	0.940717192717492	-0.558999712883234	0	1	0
0.597417354333160	0.919106836221338	-0.431114743810071	0	1	0
0.551036979824893	0.889825540020631	-0.361677144763893	0	1	0
0.348991408914471	0.958604185111795	-0.234592420856202	0	1	0
0.338163938956863	0.873473401823259	-0.140375850697538	0	1	0
0.340211061544082	0.799438267552697	-0.068798612878841	0	1	0
0.253741488728390	0.769901691471129	0.047135675002312	0	1	1
0.136190915228377	0.666658692292586	0.264751983608900	0	1	1
0.136981112550897	0.654156494925915	0.276027642821219	0	1	1
0.160926074851802	0.554318586550365	0.348107579436139	0	1	0
0.186934270781674	0.453906892886489	0.416830046828076	0	1	0
0.179983547130270	0.393910522079609	0.476704717943586	0	1	0
0.129191436877177	0.364019417844693	0.546002678852244	0	1	0
0.161313908244904	0.244679837875411	0.616903768123464	0	1	0
0.310153334957487	0.288200910844993	0.455062214733192	0	1	0
0.340467386560102	0.251408192337996	0.460821615654658	0	1	0
0.383774714604125	0.247189380934346	0.425787670022606	0	1	0
0.506597695477575	0.204237707399165	0.352237661825269	0	1	0
0.463960488639995	0.200440077844566	0.395301222798210	0	1	0
0.590497936234776	0.191132309429914	0.285153028119260	0	1	0
0.662677409604172	0.265724557885641	0.141913645266292	0	1	1
0.590460600199359	0.256312779243205	0.222153830627825	0	1	1
0.633765336160475	0.325827564395502	0.110974373904708	0	1	1
0.728151177641861	0.338007009463772	0.004638123059742	0	1	1
0.705041593952279	0.470632686471746	-0.104685793840474	0	1	0
0.760156257737043	0.405967532204003	-0.095183150122569	0	1	0
0.708312977503167	0.523204786519047	-0.160030387606210	0	1	0
0.672334575928270	0.534271801234390	-0.135392946749484	0	1	0
0.734701953359458	0.571575023090086	-0.233310397280551	0	1	0
0.618902401997500	0.599453223809150	-0.147024395219689	0	1	0
0.687475332375105	0.665217932625752	-0.278178213034330	0	1	0
0.636941553338207	0.693278444052261	-0.256523550267075	0	1	0
0.512062058987562	0.611283329327667	-0.052524879995710	0	1	0
0.475951201701518	0.631513917383040	-0.036660575363748	0	1	0
0.454984953348332	0.710458785885274	-0.094506165039440	0	1	0
0.500421110011841	0.623410707451832	-0.053010631451824	0	1	0
0.408145263573215	0.676529011191176	-0.013877502497576	0	1	0
0.390787954096745	0.664259130681643	0.015748590954530	0	1	1
0.355155077998351	0.622125906851622	0.093379101062311	0	1	1
0.380008938319241	0.598935081514479	0.091723204134983	0	1	1
0.433684259877879	0.522584709803657	0.114277154616008	0	1	1
0.410414338965649	0.471577742990624	0.187684523605613	0	1	1
0.460940938493898	0.565361089370179	0.044479619173883	0	1	1
0.351831036342875	0.506018414172711	0.211341126637136	0	1	0
0.349801533928196	0.417444854068218	0.298909723526078	0	1	0
0.431908714258017	0.409690361267547	0.227195840701466	0	1	1
0.503035678627819	0.449357843927950	0.118126345523635	0	1	1
0.429325378776375	0.438080865489988	0.201990689394934	0	1	1
0.428218730209430	0.466968257000878	0.174708138093898	0	1	1
0.537021676896481	0.420104005563427	0.113426012409110	0	1	1
0.545294600761597	0.428163897341135	0.097184194468381	0	1	1
0.496828172020583	0.531138804452324	0.042816257496571	0	1	1
0.549223090341273	0.488554535500758	0.033012701591470	0	1	1
0.489747032621701	0.501282111817041	0.079682618780777	0	1	1
0.554289284051684	0.519424509878115	-0.002917462996178	0	1	0
0.042868514855870	0.445766910733552	0.549830169036965	1	0	0
0.031951502830717	0.256168668287939	0.705179413854565	1	0	0
0.092067539646206	0.234681382425964	0.677271261688842	1	0	0
0.186290922012795	0.109863584407923	0.699460139409206	1	0	0
0.230954739889561	0.141498680267128	0.642949388409082	1	0	0
0.372089344011245	0.082052544762605	0.578309033098871	1	0	0
0.474693490232116	0.078922856948980	0.494430897587105	1	0	0
0.480451836868756	0.054801566994378	0.510308023830335	1	0	0
0.611561812432950	0.102878785149278	0.348861240146631	1	0	0
0.634432247958410	0.143540896208468	0.288656379403537	1	0	0
0.715409368547174	0.221897839490911	0.133093023722978	1	0	1
0.751505867115130	0.182626520584150	0.136238923391797	1	0	1
0.870629034770722	0.222804540435425	-0.022635315069935	1	0	0
0.871857714079381	0.379745541614104	-0.179823406960934	1	0	0
0.808902591013376	0.435796021466706	-0.173027084494633	1	0	0
0.887921289228033	0.547096998614991	-0.356222401839521	1	0	0
0.793297619260386	0.547224272880649	-0.266466934515449	1	0	0
0.820158490588478	0.580432061920108	-0.323848350347697	1	0	0
0.729586016128826	0.699571047169979	-0.350739579150153	1	0	0
0.782098647377475	0.738944008304866	-0.435187327045510	1	0	0
0.662024038785743	0.703602174335302	-0.290577080790037	1	0	0
0.553267382403985	0.774198974966711	-0.253861083417664	1	0	0
0.587022798276487	0.859405171015793	-0.366860204138820	1	0	0
0.449550922549902	0.807930151276471	-0.185602270620696	1	0	0
0.385207712599512	0.762685994316375	-0.077021024935361	1	0	0
0.326678678065426	0.830922659123569	-0.086696037243923	1	0	0
0.309705109549349	0.687526436883958	0.073498445616955	1	0	1
0.346783235890504	0.753267460558784	-0.029250197096220	1	0	0
0.312018113324601	0.581970525170716	0.175887930797065	1	0	1
0.214454167849284	0.572322514862838	0.280216506356396	1	0	0
0.200950082499816	0.570903327842140	0.294510171253945	1	0	1
0.265837627995541	0.472982374732091	0.325912080597284	1	0	0
0.293569068320234	0.492286728704322	0.281100379499263	1	0	1
0.335932134575515	0.370195439637466	0.356639848815409	1	0	0
0.283651018933943	0.432530764451668	0.347228917403930	1	0	0
0.296437795041421	0.291641864568721	0.464187138548340	1	0	0
0.432949521504475	0.316118879742436	0.316206298325100	1	0	0
0.374037241408256	0.287881029003178	0.397580119471328	1	0	0
0.430852741705094	0.260735918587150	0.370184540960889	1	0	0
0.507792577534851	0.301395155956637	0.258634747061854	1	0	1
0.573640214279625	0.314955921906695	0.181193782006086	1	0	1
0.552457370671903	0.361795427097140	0.155904939257358	1	0	1
0.567554025774552	0.382787236157939	0.120163987203353	1	0	1
0.632188731576545	0.336249218780451	0.102179731216985	1	0	1
0.596135129267431	0.430304424835909	0.044342228625244	1	0	1
0.582457304906385	0.452685720981750	0.035645747891185	1	0	1
0.660798953617001	0.528907600456905	-0.118630200649178	1	0	0
0.545618895564768	0.457439970751000	0.067685671679385	1	0	1
0.660714766515560	0.540681203383443	-0.130228702529529	1	0	0
0.652520127896413	0.558177931312303	-0.139445807834897	1	0	0
0.598320722264999	0.569542654951912	-0.096914694391277	1	0	0
0.529922114948852	0.482723853080722	0.058117592079481	1	0	1
0.573493616202719	0.604395034793996	-0.106887738754815	1	0	0
0.534148695304250	0.571554821614028	-0.034900101417389	1	0	0
0.524973663036720	0.602366483834517	-0.056513694541871	1	0	0
0.467981179242954	0.493654914239065	0.108943571007483	1	0	1
0.507477346014982	0.539615939417802	0.023700821894701	1	0	1
0.526800682813239	0.517314138079425	0.026678340241980	1	0	1
0.427859671610170	0.532779665464499	0.109934340373485	1	0	1
0.483924051499273	0.543770178255408	0.043088752500175	1	0	1
0.982347612957829	0.545905142374867	-0.441667499744654	0	1	0
0.925076354123783	0.739006945838425	-0.559089292197286	0	1	0
0.847977302233082	0.793085107660287	-0.539856045248371	0	1	0
0.869088908851587	0.821379275285164	-0.580768061019684	0	1	0
0.801480933643495	0.895220375198016	-0.585830940308779	0	1	0
0.718729086096346	0.957558403139323	-0.569165989776236	0	1	0
0.516647814839830	0.951935773744879	-0.387379323779763	0	1	0
0.462636229396823	0.997024082636807	-0.379137459682166	0	1	0
0.366404947359267	0.908072680388082	-0.202275896492915	0	1	0
0.321936012044916	0.914175635122687	-0.164563360623226	0	1	0
0.210905383954492	0.853266013077424	0.006624881302063	0	1	1
0.170800786382515	0.723514893144928	0.175565978869848	0	1	1
0.230664041694499	0.758437367347162	0.081604075281436	0	1	1
0.181637960031537	0.633997597738233	0.252400975658553	0	1	1
0.076379091852757	0.552736831238772	0.427459211021439	0	1	0
0.138381318863678	0.509211331073245	0.410683597430857	0	1	0
0.085963516811290	0.461146034293607	0.500076208378846	0	1	0
0.224296869480371	0.324378981406510	0.498719209037715	0	1	0
0.234811006143270	0.276837388031448	0.530464086740180	0	1	0
0.273399304930609	0.238713670418628	0.530070200603706	0	1	0
0.252257083639988	0.270037534305865	0.521409312777196	0	1	0
0.321179186273057	0.161078434530278	0.555146180688149	0	1	0
0.473857570409830	0.220603522848013	0.367514647195943	0	1	0
0.443097254864893	0.147118800196140	0.462293795850317	0	1	0
0.493643305490931	0.249046755293496	0.322250895878227	0	1	0
0.669798621865962	0.183098525399747	0.216178957677743	0	1	1
0.679875532275457	0.229440362128266	0.160779554740904	0	1	1
0.753181779362130	0.357696026767583	-0.040070748213841	0	1	0
0.674662636987698	0.422370423502454	-0.026233723718765	0	1	0
0.669584954866792	0.346345844589945	0.054838005207238	0	1	1
0.692038727219933	0.487922492948798	-0.108948203330274	0	1	0
0.711454607541024	0.541253743158337	-0.180910377687279	0	1	0
0.739239678904073	0.478001310465363	-0.145921780581352	0	1	0
0.733317707403323	0.595862045452145	-0.255517975802932	0	1	0
0.730909853356641	0.594798389938506	-0.252160172486276	0	1	0
0.627947497146966	0.694128988442476	-0.248644117949949	0	1	0
0.543589897002079	0.647408216140225	-0.119912540078659	0	1	0
0.637540040548019	0.651063886300625	-0.216089542806459	0	1	0
0.578136371282413	0.667556835348928	-0.174006591506314	0	1	0
0.477435530303247	0.676288879468744	-0.082833065325391	0	1	0
0.491797100146776	0.650986846134149	-0.071925459679271	0	1	0
0.452463248882741	0.694885974435633	-0.076478147353250	0	1	0
0.400035721317945	0.628253087114538	0.042494718456813	0	1	1
0.363592114857757	0.539478965466959	0.166939950855889	0	1	1
0.435612337491855	0.574622460614366	0.060524515236454	0	1	1
0.398788399036968	0.590596239757086	0.081321786880290	0	1	1
0.359585538431404	0.522984502606347	0.187116803910590	0	1	1
0.355504134600909	0.463308836644950	0.249325169216535	0	1	1
0.418009692834992	0.509394042373468	0.142901703610115	0	1	1
